2.2326719760894775 0.8572459816932678 -4.413348197937012
2.219534158706665 0.8080039024353027 -4.388239860534668
2.260925054550171 0.9645082354545593 -4.471706390380859
2.2276337146759033 0.844772219657898 -4.40560245513916
2.6961820125579834 1.5249720811843872 -5.331230640411377
2.6940689086914062 1.400061845779419 -5.3289008140563965
2.696141004562378 1.4278509616851807 -5.334162712097168
2.6953227519989014 1.5211657285690308 -5.3316521644592285
2.2147202491760254 0.7809324264526367 -4.381597995758057
2.6971418857574463 1.4858334064483643 -5.3358330726623535
2.2505557537078857 0.9272268414497375 -4.453592777252197
2.6762070655822754 1.3534082174301147 -5.296143054962158
2.6738882064819336 1.3359789848327637 -5.292245864868164
2.148846387863159 0.5311657190322876 -4.249670028686523
2.2591238021850586 0.9750236868858337 -4.473377227783203
2.149009943008423 0.5663233995437622 -4.252510070800781
2.66626238822937 1.2988497018814087 -5.27988338470459
2.2581639289855957 0.9707797765731812 -4.472011089324951
2.189997911453247 0.725605309009552 -4.336217403411865
2.189997911453247 0.725605309009552 -4.336217403411865
2.189997911453247 0.725605309009552 -4.336217403411865
2.277679204940796 1.047935128211975 -4.511795997619629
2.6915390491485596 1.560051679611206 -5.330210208892822
2.6912682056427 1.5377506017684937 -5.334245204925537
2.261194944381714 0.9868513345718384 -4.48356819152832
2.687969207763672 1.4571622610092163 -5.328836441040039
2.690338134765625 1.522334098815918 -5.333897590637207
2.2206649780273438 0.8376346826553345 -4.403995990753174
2.689049243927002 1.4308156967163086 -5.33258056640625
2.675070285797119 1.361284852027893 -5.30683708190918
2.1466927528381348 0.5631009936332703 -4.2558913230896
2.6855618953704834 1.399617314338684 -5.328704833984375
2.222989797592163 0.8426976799964905 -4.410991191864014
2.254669427871704 0.9622288346290588 -4.474437713623047
2.213547706604004 0.8073533177375793 -4.392635345458984
2.1469666957855225 0.5516103506088257 -4.258307933807373
2.1469666957855225 0.5516103506088257 -4.258307933807373
2.6888513565063477 1.5090488195419312 -5.336427211761475
2.18489408493042 0.7146169543266296 -4.336824417114258
2.685889959335327 1.4208331108093262 -5.3328094482421875
2.6864984035491943 1.4819599390029907 -5.334892749786377
2.2594757080078125 0.999114990234375 -4.488173961639404
2.2576937675476074 1.0035563707351685 -4.484965801239014
2.2596185207366943 0.9909176826477051 -4.489184379577637
2.1914985179901123 0.7485935688018799 -4.352993965148926
2.2581522464752197 1.0163918733596802 -4.486761569976807
2.2298738956451416 0.8781887292861938 -4.431105613708496
2.670031785964966 1.3613805770874023 -5.306095600128174
2.6817851066589355 1.4605382680892944 -5.3295488357543945
2.1819775104522705 0.7230395674705505 -4.336535930633545
2.682999849319458 1.5280133485794067 -5.332647323608398
2.682999849319458 1.5280133485794067 -5.332647323608398
2.6618967056274414 1.3301231861114502 -5.293309688568115
2.1801211833953857 0.7189154624938965 -4.335144519805908
2.207339286804199 0.7986487746238708 -4.390686988830566
2.681825637817383 1.4578615427017212 -5.334596633911133
2.681825637817383 1.4578615427017212 -5.334596633911133
2.2509593963623047 0.955342710018158 -4.4794206619262695
2.6853840351104736 1.5887378454208374 -5.341977596282959
2.666365385055542 1.3673534393310547 -5.307515621185303
2.6592912673950195 1.3219581842422485 -5.294158458709717
2.252572536468506 0.9824357628822327 -4.485719203948975
2.6782314777374268 1.4157301187515259 -5.332763671875
2.677187204360962 1.4645658731460571 -5.331114768981934
2.1845810413360596 0.7460482120513916 -4.350491523742676
2.6611404418945312 1.3526746034622192 -5.300520896911621
2.6752657890319824 1.4740163087844849 -5.328472137451172
2.251788377761841 0.9922017455101013 -4.486147403717041
2.2523863315582275 0.9875110983848572 -4.487555027008057
2.6782143115997314 1.5146151781082153 -5.3349528312683105
2.177635908126831 0.7171536684036255 -4.339147567749023
2.13926100730896 0.5552997589111328 -4.261751651763916
2.6730763912200928 1.432318925857544 -5.3298659324646
2.6730763912200928 1.432318925857544 -5.3298659324646
2.6742968559265137 1.4832689762115479 -5.333152770996094
2.6706833839416504 1.4273475408554077 -5.326883792877197
2.6706953048706055 1.4137862920761108 -5.328643798828125
2.6600587368011475 1.54666006565094 -5.306668758392334
2.6728720664978027 1.4911285638809204 -5.333567142486572
2.248734951019287 0.9930195808410645 -4.488921642303467
2.671912431716919 1.4521631002426147 -5.333845138549805
2.127993583679199 0.5700516700744629 -4.246790885925293
2.2605459690093994 1.042063593864441 -4.515481472015381
2.6692628860473633 1.4363889694213867 -5.332190990447998
2.666595697402954 1.417664647102356 -5.327138423919678
2.651360511779785 1.3555320501327515 -5.297762870788574
2.124581813812256 0.5848133563995361 -4.242995738983154
2.218920946121216 0.8725199103355408 -4.4343414306640625
2.6682205200195312 1.4250680208206177 -5.332645893096924
2.206292152404785 0.8387123942375183 -4.410730361938477
2.6675186157226562 1.486830234527588 -5.331996440887451
2.6639404296875 1.405898928642273 -5.325655460357666
2.652221202850342 1.376597285270691 -5.304779529571533
2.235844612121582 0.9323180317878723 -4.474404335021973
2.646448850631714 1.313509225845337 -5.296111583709717
2.243100166320801 0.9842190742492676 -4.4897661209106445
2.644923210144043 1.3316048383712769 -5.294447898864746
2.663581371307373 1.481334924697876 -5.33117151260376
2.663581371307373 1.481334924697876 -5.33117151260376
2.127321720123291 0.5495222210884094 -4.255619525909424
2.197949171066284 0.7942255735397339 -4.399744033813477
2.197949171066284 0.7942255735397339 -4.399744033813477
2.1720690727233887 0.7197619676589966 -4.349178791046143
2.663205623626709 1.4968881607055664 -5.332625865936279
2.235049247741699 0.9317432045936584 -4.476991653442383
2.2359931468963623 0.925601601600647 -4.478942394256592
2.242560625076294 0.9679120182991028 -4.49242639541626
2.196781873703003 0.8189577460289001 -4.400830268859863
2.642253875732422 1.3189940452575684 -5.29387903213501
2.1287639141082764 0.5304145216941833 -4.262298583984375
2.1214864253997803 0.5666895508766174 -4.248536586761475
2.1214864253997803 0.5666895508766174 -4.248536586761475
2.2433619499206543 0.9971031546592712 -4.4962358474731445
2.2449259757995605 1.0046054124832153 -4.499701499938965
2.6608338356018066 1.4644265174865723 -5.333042144775391
2.239882469177246 0.9548932313919067 -4.490609645843506
2.6595561504364014 1.4911860227584839 -5.330801010131836
2.6588637828826904 1.4782620668411255 -5.329827308654785
2.1705715656280518 0.7370753884315491 -4.351306915283203
2.6598258018493652 1.4562678337097168 -5.333821773529053
2.639629364013672 1.315114974975586 -5.296555519104004
2.1224958896636963 0.5219175815582275 -4.255547046661377
2.20892333984375 0.8583925366401672 -4.432921409606934
2.20892333984375 0.8583925366401672 -4.432921409606934
2.2368521690368652 0.9582152366638184 -4.489969253540039
2.234705924987793 0.9483256340026855 -4.486034393310547
2.169666051864624 0.7406874895095825 -4.354549407958984
2.65444278717041 1.4851536750793457 -5.328583240509033
2.65444278717041 1.4851536750793457 -5.328583240509033
2.2511935234069824 1.048479437828064 -4.520632743835449
2.238156318664551 0.9679722189903259 -4.4944868087768555
2.6387739181518555 1.3536996841430664 -5.298703193664551
2.6387739181518555 1.3536996841430664 -5.298703193664551
2.6353068351745605 1.3206672668457031 -5.29287576675415
2.649555206298828 1.424307107925415 -5.320903778076172
2.6549479961395264 1.4530109167099 -5.332419395446777
2.1675808429718018 0.7315295934677124 -4.353623390197754
2.1233346462249756 0.528679370880127 -4.263736248016357
2.1976592540740967 0.8276364803314209 -4.416440486907959
2.2079155445098877 0.8663375377655029 -4.4374680519104
2.2079155445098877 0.8663375377655029 -4.4374680519104
2.635706901550293 1.3581671714782715 -5.297848224639893
2.651270866394043 1.5104247331619263 -5.328338146209717
2.2319419384002686 0.9291924238204956 -4.487549781799316
2.652214288711548 1.4552661180496216 -5.332343101501465
2.2043638229370117 0.8595037460327148 -4.43342399597168
2.1896140575408936 0.7845547795295715 -4.403374195098877
2.630934476852417 1.3413963317871094 -5.292171478271484
2.630934476852417 1.3413963317871094 -5.292171478271484
2.630934476852417 1.3413963317871094 -5.292171478271484
2.6324405670166016 1.3478589057922363 -5.295361518859863
2.6328072547912598 1.3204878568649292 -5.296640396118164
2.6493844985961914 1.4717916250228882 -5.329051971435547
2.190399169921875 0.8058801889419556 -4.406526565551758
2.1889638900756836 0.7944201231002808 -4.405359268188477
2.6451427936553955 1.4850541353225708 -5.325786590576172
2.231508255004883 0.9588148593902588 -4.494404315948486
2.231508255004883 0.9588148593902588 -4.494404315948486
2.6454641819000244 1.4591392278671265 -5.328367710113525
2.6415469646453857 1.4215556383132935 -5.320987224578857
2.6415469646453857 1.4215556383132935 -5.320987224578857
2.114990711212158 0.5221434831619263 -4.258877754211426
2.643993377685547 1.4558123350143433 -5.328369617462158
2.227679967880249 0.9386902451515198 -4.490701675415039
2.2263777256011963 0.944259524345398 -4.488589763641357
2.6441380977630615 1.5025116205215454 -5.329987049102783
2.1834535598754883 0.7868744134902954 -4.402261734008789
2.624969720840454 1.349581241607666 -5.293729782104492
2.6353049278259277 1.4153084754943848 -5.315505504608154
2.642197608947754 1.5080467462539673 -5.3287506103515625
2.1601314544677734 0.722679615020752 -4.3578200340271
2.6372694969177246 1.424108862876892 -5.321442127227783
2.639864444732666 1.4928438663482666 -5.327809810638428
2.639864444732666 1.4928438663482666 -5.327809810638428
2.6240224838256836 1.3861654996871948 -5.2982048988342285
2.6376407146453857 1.4425580501556396 -5.325814247131348
2.18179988861084 0.793656587600708 -4.406473636627197
2.622616767883301 1.3784765005111694 -5.2973527908325195
2.180166482925415 0.7878515124320984 -4.404701232910156
2.6363301277160645 1.457400918006897 -5.326198577880859
2.6218833923339844 1.3622037172317505 -5.2986273765563965
2.222343921661377 0.9499229192733765 -4.491868019104004
2.2424936294555664 1.0370426177978516 -4.533567428588867
2.633533000946045 1.480176568031311 -5.32421350479126
2.222564697265625 0.9577273726463318 -4.495234489440918
2.630322217941284 1.4309546947479248 -5.318874359130859
2.2348055839538574 1.0229741334915161 -4.520581245422363
2.6162939071655273 1.3473589420318604 -5.292619228363037
2.6325011253356934 1.5013244152069092 -5.3267388343811035
2.6224939823150635 1.4034713506698608 -5.307590484619141
2.2209510803222656 0.9418092370033264 -4.495978355407715
2.631974935531616 1.4611026048660278 -5.32736873626709
2.624040126800537 1.4102845191955566 -5.312665939331055
2.630635976791382 1.4735298156738281 -5.325728416442871
2.614950180053711 1.3855571746826172 -5.294752597808838
2.614950180053711 1.3855571746826172 -5.294752597808838
2.182431697845459 0.8152981996536255 -4.419270038604736
2.2348005771636963 1.0208433866500854 -4.526124954223633
2.6242496967315674 1.5251797437667847 -5.313541412353516
2.615539789199829 1.3633896112442017 -5.297464847564697
2.6274936199188232 1.4564818143844604 -5.3230743408203125
2.6048707962036133 1.3034470081329346 -5.279381275177002
2.6048707962036133 1.3034470081329346 -5.279381275177002
2.6277968883514404 1.444331169128418 -5.325751304626465
2.6125683784484863 1.3786523342132568 -5.295532703399658
2.609412670135498 1.346895456314087 -5.290268421173096
2.2374913692474365 1.0379102230072021 -4.537408828735352
2.6121320724487305 1.3915804624557495 -5.3019700050354
2.600985288619995 1.3091150522232056 -5.279848098754883
2.600985288619995 1.3091150522232056 -5.279848098754883
2.60800838470459 1.3748948574066162 -5.294483661651611
2.206819534301758 0.9176440834999084 -4.481310844421387
2.212946653366089 0.9335328936576843 -4.493924617767334
2.621594190597534 1.479097843170166 -5.32252836227417
2.622199535369873 1.4748508930206299 -5.324533939361572
2.175258159637451 0.8172482252120972 -4.417782783508301
2.2091481685638428 0.9225955009460449 -4.487101078033447
2.6218106746673584 1.4877455234527588 -5.323967456817627
2.6008403301239014 1.3232369422912598 -5.2835259437561035
2.620974540710449 1.493777871131897 -5.324279308319092
2.1939303874969482 0.8814705014228821 -4.4579949378967285
2.212547540664673 0.9676491618156433 -4.496791839599609
2.616243839263916 1.4246675968170166 -5.316367149353027
2.5993752479553223 1.3349862098693848 -5.282819747924805
2.2145073413848877 0.9733120203018188 -4.501234531402588
2.1919937133789062 0.873178243637085 -4.4557013511657715
2.210411310195923 0.9418229460716248 -4.494317054748535
2.2140467166900635 0.9775737524032593 -4.503107070922852
2.6082890033721924 1.39883291721344 -5.3041791915893555
2.6082890033721924 1.39883291721344 -5.3041791915893555
2.6107137203216553 1.4062737226486206 -5.309146404266357
2.6107137203216553 1.4062737226486206 -5.309146404266357
2.611830234527588 1.5148283243179321 -5.310719013214111
2.5967912673950195 1.3283047676086426 -5.281979084014893
2.6119539737701416 1.4212244749069214 -5.312407493591309
2.189520835876465 0.8770499229431152 -4.454054355621338
2.091926097869873 0.5981491804122925 -4.255758285522461
2.594034194946289 1.3218787908554077 -5.280396938323975
2.6141529083251953 1.4940534830093384 -5.323086261749268
2.6487202644348145 1.6303917169570923 -5.392160415649414
2.207975387573242 0.9666599035263062 -4.4977617263793945
2.0869948863983154 0.5806270837783813 -4.249025344848633
2.6074678897857666 1.536598563194275 -5.310385227203369
2.102750062942505 0.5376512408256531 -4.280569076538086
2.6119627952575684 1.553157091140747 -5.319952964782715
2.6027040481567383 1.3954907655715942 -5.3027663230896
2.197113275527954 0.9092012047767639 -4.477281093597412
2.097653388977051 0.5262954235076904 -4.271061420440674
2.171750545501709 0.8238392472267151 -4.426452159881592
2.6034345626831055 1.5230004787445068 -5.305183410644531
2.1873018741607666 0.8661168217658997 -4.458719253540039
2.0993800163269043 0.5310114026069641 -4.276024341583252
2.227071762084961 1.0448715686798096 -4.5402679443359375
2.1905128955841064 0.9000985026359558 -4.4671807289123535
2.610053300857544 1.5005689859390259 -5.322370529174805
2.163224935531616 0.808102548122406 -4.412655830383301
2.5865633487701416 1.32607901096344 -5.278142929077148
2.6023101806640625 1.4273890256881714 -5.309907913208008
2.2011044025421143 0.9403935670852661 -4.492035388946533
2.6077911853790283 1.488385796546936 -5.320398807525635
2.5885515213012695 1.3455867767333984 -5.283081531524658
2.598254680633545 1.3974045515060425 -5.3028435707092285
2.1837761402130127 0.8709197044372559 -4.458261013031006
2.1837761402130127 0.8709197044372559 -4.458261013031006
2.600794792175293 1.5272306203842163 -5.308476448059082
2.598496913909912 1.4092057943344116 -5.307933330535889
2.598839521408081 1.439397931098938 -5.309383392333984
2.598839521408081 1.439397931098938 -5.309383392333984
2.085812568664551 0.5931839942932129 -4.260233402252197
2.6022934913635254 1.4800734519958496 -5.317561626434326
2.602945566177368 1.5021649599075317 -5.3191351890563965
2.200829267501831 0.9602097272872925 -4.500261306762695
2.594294786453247 1.5214473009109497 -5.303423881530762
2.158461093902588 0.8024927377700806 -4.413615703582764
2.165926933288574 0.8370659351348877 -4.429464817047119
2.165926933288574 0.8370659351348877 -4.429464817047119
2.5989627838134766 1.4932770729064941 -5.314006805419922
2.595538377761841 1.4168928861618042 -5.308284759521484
2.5946297645568848 1.3997730016708374 -5.306728363037109
2.177978277206421 0.8700718879699707 -4.455954074859619
2.177978277206421 0.8700718879699707 -4.455954074859619
2.586042881011963 1.3805084228515625 -5.291885852813721
2.586042881011963 1.3805084228515625 -5.291885852813721
2.5976736545562744 1.455045223236084 -5.315152168273926
2.597757339477539 1.4705489873886108 -5.316287040710449
2.158449411392212 0.8115542531013489 -4.418019771575928
2.591033935546875 1.5163661241531372 -5.302365779876709
2.582834005355835 1.3747459650039673 -5.2870402336120605
2.1462032794952393 0.7750318050384521 -4.393174171447754
1.8615968227386475 0.3127140402793884 -3.8063766956329346
2.5962562561035156 1.4775644540786743 -5.317705154418945
2.1429338455200195 0.7584229707717896 -4.390143394470215
2.593029499053955 1.486494779586792 -5.311962604522705
2.177344799041748 0.8797750473022461 -4.463840484619141
2.191342830657959 0.9407016038894653 -4.493389129638672
2.1551239490509033 0.8114792108535767 -4.418570518493652
2.588170051574707 1.419421672821045 -5.306358814239502
2.586926221847534 1.4144911766052246 -5.304734706878662
2.586926221847534 1.4144911766052246 -5.304734706878662
2.1539623737335205 0.8231868147850037 -4.417240619659424
2.2045462131500244 0.9921777248382568 -4.521945953369141
2.5776336193084717 1.374623417854309 -5.28643798828125
1.857399582862854 0.3104275166988373 -3.8034989833831787
2.59087872505188 1.4663492441177368 -5.31574821472168
2.173006534576416 0.8840409517288208 -4.460269927978516
2.5817644596099854 1.3975809812545776 -5.2997517585754395
2.575129508972168 1.3792009353637695 -5.287860870361328
2.58539080619812 1.510664463043213 -5.308272361755371
2.5900115966796875 1.4831916093826294 -5.31819486618042
2.143200635910034 0.7934961318969727 -4.402642250061035
2.153545618057251 0.8367769122123718 -4.425019264221191
2.5813980102539062 1.4311407804489136 -5.303830623626709
2.187506675720215 0.945380687713623 -4.495474815368652
2.5844879150390625 1.4671555757522583 -5.313205242156982
2.207512140274048 1.0239289999008179 -4.53957986831665
2.1468303203582764 0.8075646758079529 -4.414961338043213
2.14746356010437 0.8143390417098999 -4.416828155517578
2.077129602432251 0.578879177570343 -4.269970893859863
2.1964614391326904 0.983163058757782 -4.52065372467041
2.5993592739105225 1.606588363647461 -5.347507476806641
2.0774362087249756 0.6183998584747314 -4.27508020401001
2.1686768531799316 0.8893200755119324 -4.466203689575195
2.143599510192871 0.8150590062141418 -4.415761470794678
2.1260077953338623 0.7266957759857178 -4.379538059234619
2.1940958499908447 0.9888204336166382 -4.521537780761719
2.563159942626953 1.3618474006652832 -5.281546592712402
2.5693626403808594 1.4186447858810425 -5.295434951782227
2.1818900108337402 0.9432359337806702 -4.498296737670898
2.188077211380005 0.971384584903717 -4.511602878570557
2.5619146823883057 1.375403642654419 -5.282083511352539
2.0696470737457275 0.586161732673645 -4.264858722686768
2.562513828277588 1.3567041158676147 -5.283833980560303
2.562513828277588 1.3567041158676147 -5.283833980560303
2.1785402297973633 0.9390844702720642 -4.4931159019470215
2.5724785327911377 1.4826562404632568 -5.304910182952881
2.1344282627105713 0.7732927203178406 -4.40230131149292
2.0715413093566895 0.5658930540084839 -4.270819664001465
2.147235631942749 0.846250057220459 -4.430804252624512
2.5587878227233887 1.3701938390731812 -5.2813897132873535
2.1221728324890137 0.7234532833099365 -4.380013942718506
2.1221728324890137 0.7234532833099365 -4.380013942718506
2.1377007961273193 0.81502765417099 -4.413098335266113
2.1377007961273193 0.81502765417099 -4.413098335266113
2.5670065879821777 1.4492380619049072 -5.29893684387207
2.5646145343780518 1.5128061771392822 -5.294097900390625
2.563455820083618 1.4102710485458374 -5.292713165283203
2.161212205886841 0.8766177296638489 -4.462963104248047
2.068946361541748 0.56356281042099 -4.270630836486816
2.561647415161133 1.3980324268341064 -5.292871475219727
2.54209041595459 1.3148231506347656 -5.254477024078369
2.54209041595459 1.3148231506347656 -5.254477024078369
2.5582315921783447 1.3909153938293457 -5.290341854095459
2.5582315921783447 1.3909153938293457 -5.290341854095459
2.183640241622925 0.9750378131866455 -4.516607284545898
2.5606112480163574 1.5228756666183472 -5.295566082000732
2.1573126316070557 0.8891860842704773 -4.463355541229248
2.1573126316070557 0.8891860842704773 -4.463355541229248
2.560065269470215 1.4428259134292603 -5.295631408691406
2.560065269470215 1.4428259134292603 -5.295631408691406
2.0671229362487793 0.5665275454521179 -4.273879051208496
2.5629687309265137 1.474153995513916 -5.301932334899902
2.1731369495391846 0.9425702691078186 -4.4976487159729
2.1769111156463623 0.9582833647727966 -4.506516933441162
2.1168558597564697 0.7220841646194458 -4.381112098693848
2.55806303024292 1.4318232536315918 -5.296232223510742
2.554501533508301 1.3924858570098877 -5.290345668792725
2.558464765548706 1.5090898275375366 -5.2974162101745605
2.55495285987854 1.5217962265014648 -5.2935566902160645
2.064002275466919 0.5706354379653931 -4.2760539054870605
2.1140904426574707 0.7194737195968628 -4.381744861602783
2.533541440963745 1.3133465051651 -5.252374172210693
2.543565273284912 1.3511431217193604 -5.273233890533447
2.5529696941375732 1.4239062070846558 -5.292956829071045
2.5576393604278564 1.4878400564193726 -5.302345275878906
2.169050931930542 0.9423169493675232 -4.50058126449585
2.169050931930542 0.9423169493675232 -4.50058126449585
2.169780731201172 0.9480748176574707 -4.5021185874938965
2.55580472946167 1.4737863540649414 -5.302083969116211
2.172363519668579 0.9633007049560547 -4.5086164474487305
2.1738908290863037 0.9668834805488586 -4.51302433013916
2.1692426204681396 0.9557548761367798 -4.505050182342529
2.1692426204681396 0.9557548761367798 -4.505050182342529
2.5359466075897217 1.3341752290725708 -5.266271114349365
2.5559749603271484 1.56608247756958 -5.305619716644287
2.550215482711792 1.4574944972991943 -5.295464515686035
2.5533909797668457 1.471252679824829 -5.302117347717285
2.122427463531494 0.8106656670570374 -4.4086151123046875
2.5514214038848877 1.514044165611267 -5.299998760223389
2.165282726287842 0.9364916086196899 -4.4999260902404785
2.526165008544922 1.3160885572433472 -5.249886512756348
2.548565149307251 1.5417206287384033 -5.296085834503174
2.109753370285034 0.7748969197273254 -4.386131763458252
2.536310911178589 1.3752750158309937 -5.274979591369629
2.5490548610687256 1.4801926612854004 -5.30078649520874
2.5286526679992676 1.3286528587341309 -5.260238170623779
2.111943006515503 0.7916785478591919 -4.393366813659668
2.5413904190063477 1.4077568054199219 -5.28791618347168
2.1718902587890625 0.992420494556427 -4.520115375518799
2.1490402221679688 0.8952537178993225 -4.4724907875061035
2.1490402221679688 0.8952537178993225 -4.4724907875061035
2.055417537689209 0.5748956799507141 -4.275204181671143
2.538783073425293 1.5169709920883179 -5.283720970153809
2.0559780597686768 0.5684191584587097 -4.279019832611084
2.0559780597686768 0.5684191584587097 -4.279019832611084
2.104172706604004 0.7207485437393188 -4.382425308227539
2.140896797180176 0.868931770324707 -4.460748672485352
2.5204250812530518 1.3302702903747559 -5.252115249633789
2.100417375564575 0.7381789088249207 -4.376455307006836
2.100417375564575 0.7381789088249207 -4.376455307006836
2.166989326477051 0.9869874119758606 -4.518052577972412
2.166989326477051 0.9869874119758606 -4.518052577972412
2.0556557178497314 0.5643665194511414 -4.282805919647217
2.0584895610809326 0.5617450475692749 -4.288708209991455
2.5134918689727783 1.312741994857788 -5.24116849899292
2.5134918689727783 1.312741994857788 -5.24116849899292
2.1626269817352295 0.9627406597137451 -4.510801792144775
2.1626269817352295 0.9627406597137451 -4.510801792144775
2.5342464447021484 1.3726763725280762 -5.286720275878906
2.144473075866699 0.8982898592948914 -4.474517345428467
2.144473075866699 0.8982898592948914 -4.474517345428467
2.062055826187134 0.531359076499939 -4.2993574142456055
2.5127506256103516 1.3086613416671753 -5.24428653717041
2.1633572578430176 0.9766181111335754 -4.51680326461792
2.1609857082366943 0.972256064414978 -4.5140252113342285
2.5320637226104736 1.5098322629928589 -5.2887420654296875
2.1651179790496826 1.0014408826828003 -4.526418209075928
2.1730387210845947 1.0501887798309326 -4.543420314788818
2.5313470363616943 1.4440984725952148 -5.291564464569092
2.0481276512145996 0.57445228099823 -4.279847621917725
2.0481276512145996 0.57445228099823 -4.279847621917725
2.5337185859680176 1.4826070070266724 -5.29765510559082
2.5337185859680176 1.4826070070266724 -5.29765510559082
2.139721393585205 0.8984510898590088 -4.475986480712891
2.529813528060913 1.44937264919281 -5.29093599319458
2.5056464672088623 1.3212347030639648 -5.241599082946777
1.8057513236999512 0.31494632363319397 -3.7717623710632324
2.524035930633545 1.5378708839416504 -5.279813766479492
2.4992127418518066 1.293633222579956 -5.232834339141846
2.137866973876953 0.9019690155982971 -4.477621078491211
2.130690813064575 0.8750981688499451 -4.462717533111572
2.5276730060577393 1.4530458450317383 -5.293295860290527
2.124901533126831 0.8564499616622925 -4.450869083404541
2.525634527206421 1.4445173740386963 -5.292147636413574
2.152137041091919 0.9517932534217834 -4.510796546936035
2.119297742843628 0.8479775786399841 -4.441837310791016
2.5173168182373047 1.3810930252075195 -5.276109218597412
2.496537208557129 1.3046594858169556 -5.233479976654053
2.1516194343566895 0.9554263353347778 -4.51064395904541
2.521881103515625 1.4130816459655762 -5.285662651062012
2.5216383934020996 1.407991647720337 -5.285505771636963
2.0516719818115234 0.5273807048797607 -4.297347545623779
2.1542978286743164 0.9794989228248596 -4.518049240112305
2.1120855808258057 0.8299548625946045 -4.429408550262451
2.1120855808258057 0.8299548625946045 -4.429408550262451
2.5168344974517822 1.3852434158325195 -5.277991771697998
2.524736166000366 1.4809468984603882 -5.294427394866943
2.5180184841156006 1.513205885887146 -5.280359745025635
2.0409979820251465 0.5842670798301697 -4.279088973999023
2.524134874343872 1.4666930437088013 -5.294112205505371
2.520346164703369 1.4346399307250977 -5.28736686706543
2.5031578540802 1.3399204015731812 -5.252748966217041
2.523843765258789 1.4629124402999878 -5.296654224395752
2.1152050495147705 0.841825008392334 -4.440096378326416
2.1587462425231934 1.0169737339019775 -4.532488822937012
2.121856212615967 0.8580830693244934 -4.455230236053467
2.5201609134674072 1.4473192691802979 -5.290592670440674
2.522958993911743 1.4860237836837769 -5.296838760375977
2.107703447341919 0.8234187960624695 -4.426436901092529
2.5515942573547363 1.7861900329589844 -5.353033065795898
2.05370831489563 0.5367215275764465 -4.310406684875488
2.05370831489563 0.5367215275764465 -4.310406684875488
2.516873598098755 1.4165494441986084 -5.286178112030029
2.521080493927002 1.474332571029663 -5.294495582580566
2.521080493927002 1.474332571029663 -5.294495582580566
2.041536331176758 0.6033927202224731 -4.28791618347168
2.149021625518799 0.9663467407226562 -4.516631126403809
2.5152673721313477 1.4281761646270752 -5.285204887390137
2.143353223800659 0.9415663480758667 -4.505119800567627
2.5205581188201904 1.46988844871521 -5.296638488769531
2.04076886177063 0.6148986220359802 -4.287322044372559
2.5168681144714355 1.4423446655273438 -5.289194107055664
2.517784833908081 1.4585208892822266 -5.291175365447998
2.517784833908081 1.4585208892822266 -5.291175365447998
2.1546950340270996 1.0340617895126343 -4.5306010246276855
2.1178267002105713 0.8618759512901306 -4.453242301940918
2.1449549198150635 0.9566344618797302 -4.510986328125
2.14632511138916 0.9537129402160645 -4.513932228088379
2.154168128967285 1.0219173431396484 -4.5322675704956055
2.154168128967285 1.0219173431396484 -4.5322675704956055
2.514211416244507 1.4626729488372803 -5.2901458740234375
2.094252109527588 0.7934922575950623 -4.407294750213623
2.5436718463897705 1.7909114360809326 -5.347662925720215
2.5065410137176514 1.4001940488815308 -5.27594518661499
2.503962993621826 1.3874492645263672 -5.270750045776367
2.503962993621826 1.3874492645263672 -5.270750045776367
2.504815101623535 1.405536413192749 -5.274833679199219
2.1482644081115723 0.9976872205734253 -4.527693271636963
2.531893491744995 1.676007866859436 -5.332180023193359
2.5068581104278564 1.4375122785568237 -5.283148765563965
2.123302698135376 0.9058805108070374 -4.476163864135742
2.525747776031494 1.599229097366333 -5.322648048400879
2.11332368850708 0.8694643378257751 -4.4571919441223145
2.4830710887908936 1.3164291381835938 -5.236981391906738
2.142512798309326 0.9670624732971191 -4.519343376159668
2.142512798309326 0.9670624732971191 -4.519343376159668
2.4735188484191895 1.2892518043518066 -5.219395637512207
2.5037291049957275 1.456920862197876 -5.284206390380859
2.5002267360687256 1.4266576766967773 -5.277130603790283
2.525923490524292 1.685989499092102 -5.3280229568481445
2.0935370922088623 0.8028772473335266 -4.4203667640686035
2.489774227142334 1.3675605058670044 -5.2570648193359375
2.505549430847168 1.5838556289672852 -5.287294387817383
2.4962477684020996 1.402537226676941 -5.27154016494751
2.4907608032226562 1.3781055212020874 -5.261421203613281
2.1420726776123047 1.0071762800216675 -4.525891304016113
2.502595901489258 1.4793436527252197 -5.286031246185303
2.502577781677246 1.487714171409607 -5.287646770477295
2.493583917617798 1.4105315208435059 -5.269885540008545
2.0442323684692383 0.5402188301086426 -4.31770658493042
2.492392063140869 1.4184931516647339 -5.268171310424805
2.481959819793701 1.3437204360961914 -5.249073505401611
2.5256128311157227 1.7789902687072754 -5.335355281829834
2.0322086811065674 0.6057866811752319 -4.298173904418945
2.4966838359832764 1.4774773120880127 -5.283952236175537
2.4966838359832764 1.4774773120880127 -5.283952236175537
2.482606887817383 1.3755009174346924 -5.257685661315918
2.4814319610595703 1.385222315788269 -5.259659290313721
2.4707698822021484 1.3290657997131348 -5.237497806549072
2.133291482925415 1.0108996629714966 -4.522977352142334
2.0350050926208496 0.5514066815376282 -4.311892986297607
2.133204460144043 1.0068291425704956 -4.523815155029297
2.0380613803863525 0.53323894739151 -4.3180975914001465
2.1031835079193115 0.8827884793281555 -4.461677074432373
2.125199794769287 0.9543110728263855 -4.508848667144775
2.4829983711242676 1.4193695783615112 -5.267050743103027
2.4694159030914307 1.3505878448486328 -5.238807201385498
2.1313724517822266 0.9996340274810791 -4.5226898193359375
2.037694215774536 0.5411229729652405 -4.320745944976807
2.036404848098755 0.5467292666435242 -4.318183898925781
2.4708473682403564 1.34393310546875 -5.243416786193848
2.5118350982666016 1.7584360837936401 -5.325605392456055
2.5017852783203125 1.5934637784957886 -5.307555198669434
2.4797451496124268 1.424210548400879 -5.263823986053467
2.480257749557495 1.412182331085205 -5.267477512359619
2.024775505065918 0.5825804471969604 -4.2982964515686035
2.134075880050659 1.0376453399658203 -4.534977912902832
2.0369439125061035 0.536264181137085 -4.324744701385498
2.4843645095825195 1.4887077808380127 -5.277547359466553
2.4759390354156494 1.5201023817062378 -5.262143135070801
2.027350425720215 0.5687561631202698 -4.307553291320801
2.027350425720215 0.5687561631202698 -4.307553291320801
2.1240100860595703 0.9632392525672913 -4.516597270965576
2.4630181789398193 1.3396024703979492 -5.238014221191406
2.033625841140747 0.5442737936973572 -4.32159423828125
2.0327577590942383 0.5514047741889954 -4.320005416870117
2.024627685546875 0.596051812171936 -4.303664684295654
2.4738128185272217 1.4205353260040283 -5.265377044677734
2.4660325050354004 1.3840110301971436 -5.249453067779541
2.4582693576812744 1.3454917669296265 -5.236254692077637
2.4749858379364014 1.459326982498169 -5.270993232727051
2.0826499462127686 0.8296380639076233 -4.436599254608154
2.1079747676849365 0.9342103004455566 -4.491146087646484
2.472735643386841 1.4401122331619263 -5.268237113952637
2.0629756450653076 0.7834405899047852 -4.3960394859313965
2.466606616973877 1.4092607498168945 -5.2574615478515625
2.4724037647247314 1.4513154029846191 -5.269693851470947
2.4724037647247314 1.4513154029846191 -5.269693851470947
2.4724037647247314 1.4513154029846191 -5.269693851470947
2.024289608001709 0.5660388469696045 -4.313088893890381
2.5005266666412354 1.821560025215149 -5.324920177459717
2.471937656402588 1.483455777168274 -5.270448207855225
2.026671886444092 0.5297989249229431 -4.319077491760254
2.091813087463379 0.8834031224250793 -4.463123321533203
2.46956467628479 1.4625853300094604 -5.270064353942871
2.454054117202759 1.3730547428131104 -5.23799991607666
2.09061598777771 0.897428035736084 -4.46309232711792
2.0239100456237793 0.6232077479362488 -4.318820476531982
2.43965482711792 1.2900896072387695 -5.2100372314453125
2.466667413711548 1.4917371273040771 -5.266432285308838
2.0253829956054688 0.5474323034286499 -4.322450637817383
2.469071865081787 1.4782661199569702 -5.271975040435791
2.4685771465301514 1.4833966493606567 -5.272317886352539
2.4598031044006348 1.5104084014892578 -5.253912925720215
2.4379868507385254 1.2994177341461182 -5.209425449371338
2.018925189971924 0.5949028134346008 -4.311882019042969
2.4604690074920654 1.4150208234786987 -5.25777006149292
2.450330972671509 1.3718143701553345 -5.237088203430176
2.437145948410034 1.2941726446151733 -5.2095842361450195
2.4813232421875 1.7025567293167114 -5.298844337463379
2.0218074321746826 0.5711714029312134 -4.31920862197876
2.026437520980835 0.5343625545501709 -4.3286051750183105
2.0236330032348633 0.5576014518737793 -4.324827671051025
2.4602062702178955 1.4400575160980225 -5.261010646820068
2.4643373489379883 1.4747235774993896 -5.269571781158447
2.4643373489379883 1.4747235774993896 -5.269571781158447
2.1299309730529785 1.0600488185882568 -4.556458473205566
2.4603404998779297 1.494570255279541 -5.262365818023682
2.4357192516326904 1.3133533000946045 -5.211946487426758
2.0213515758514404 0.5655277967453003 -4.324473857879639
2.108996868133545 0.9977883100509644 -4.5164337158203125
2.452221155166626 1.5278112888336182 -5.249786853790283
2.4812538623809814 1.787369966506958 -5.308655738830566
2.0199832916259766 0.5560566782951355 -4.324774742126465
2.0199832916259766 0.5560566782951355 -4.324774742126465
2.439804792404175 1.3552135229110718 -5.227101802825928
2.452038288116455 1.5224045515060425 -5.251977443695068
2.436081886291504 1.3370587825775146 -5.220295429229736
2.4548816680908203 1.4428319931030273 -5.259737968444824
2.450514793395996 1.408568263053894 -5.250877380371094
2.4535863399505615 1.503050684928894 -5.2567853927612305
2.4359147548675537 1.3445426225662231 -5.221203327178955
2.476912021636963 1.7602578401565552 -5.30337381362915
2.476912021636963 1.7602578401565552 -5.30337381362915
2.072399854660034 0.8433974385261536 -4.445349216461182
2.6500022411346436 2.0749239921569824 -5.672910213470459
2.0191476345062256 0.5685889720916748 -4.329156875610352
2.649233818054199 2.106602907180786 -5.671428680419922
2.441622495651245 1.3862282037734985 -5.238007545471191
2.047665596008301 0.749255895614624 -4.392883777618408
2.449267625808716 1.4316685199737549 -5.254493713378906
2.4436678886413574 1.3931711912155151 -5.243587970733643
2.6447601318359375 2.0337414741516113 -5.6661272048950195
2.452605962753296 1.4778070449829102 -5.263167858123779
2.436032772064209 1.3432292938232422 -5.228288650512695
2.436349868774414 1.3718934059143066 -5.229464054107666
2.0182948112487793 0.5349894762039185 -4.329988479614258
2.0644240379333496 0.8120158910751343 -4.433040618896484
2.4456942081451416 1.5191423892974854 -5.249813079833984
2.6426899433135986 2.0413618087768555 -5.665688991546631
2.4716081619262695 1.7995718717575073 -5.3030900955200195
2.642810344696045 2.070579767227173 -5.66961145401001
2.642810344696045 2.070579767227173 -5.66961145401001
2.0135726928710938 0.5304468274116516 -4.325133323669434
2.6376113891601562 2.0119199752807617 -5.661606788635254
2.4431700706481934 1.4371471405029297 -5.252894401550293
2.012957811355591 0.5728589296340942 -4.326414585113525
2.4254305362701416 1.3413596153259277 -5.217751979827881
2.4387176036834717 1.4175467491149902 -5.246338844299316
2.4394423961639404 1.528555154800415 -5.246598720550537
2.457902431488037 1.7133923768997192 -5.284290790557861
2.0684866905212402 0.8484321236610413 -4.45176362991333
2.4260504245758057 1.3530540466308594 -5.22156286239624
2.4523086547851562 1.5927345752716064 -5.275402545928955
2.011845588684082 0.5625491142272949 -4.328428745269775
2.4387965202331543 1.5087101459503174 -5.248713970184326
2.066770553588867 0.8586819767951965 -4.450537204742432
2.066770553588867 0.8586819767951965 -4.450537204742432
2.4276742935180664 1.3745015859603882 -5.2276225090026855
2.456948757171631 1.705729603767395 -5.286019325256348
2.0461971759796143 0.7845295071601868 -4.409397125244141
2.0461971759796143 0.7845295071601868 -4.409397125244141
2.434645652770996 1.5220340490341187 -5.246099948883057
2.4334750175476074 1.4962323904037476 -5.245790004730225
2.632277250289917 2.0697104930877686 -5.66489839553833
2.0123727321624756 0.582076907157898 -4.337617874145508
2.008565664291382 0.6251551508903503 -4.330249309539795
2.008565664291382 0.6251551508903503 -4.330249309539795
2.032536506652832 0.6387191414833069 -4.381987571716309
2.062654495239258 0.837797999382019 -4.448939323425293
2.0623068809509277 0.8636516332626343 -4.448892593383789
2.6355371475219727 2.114027500152588 -5.673118591308594
2.063992500305176 0.8552046418190002 -4.453046798706055
2.431628465652466 1.4833375215530396 -5.24464750289917
2.4183950424194336 1.3565239906311035 -5.21855354309082
2.412353515625 1.3248478174209595 -5.205759048461914
2.4920246601104736 1.6839860677719116 -5.373599052429199
2.4920246601104736 1.6839860677719116 -5.373599052429199
2.0590944290161133 0.8415025472640991 -4.444168567657471
2.443610191345215 1.580700397491455 -5.271233081817627
2.104588270187378 1.0374947786331177 -4.54416561126709
2.4433083534240723 1.5874383449554443 -5.272578716278076
2.4286048412323 1.505743145942688 -5.242128372192383
2.624131679534912 2.043093204498291 -5.656956672668457
2.0602738857269287 0.8600360155105591 -4.4504170417785645
2.6237313747406006 2.0779621601104736 -5.65568208694458
2.6345629692077637 2.108983039855957 -5.6788530349731445
2.624302387237549 2.0896248817443848 -5.657029151916504
2.006166934967041 0.5922049880027771 -4.3325910568237305
2.057314872741699 0.8348769545555115 -4.44597864151001
2.4118876457214355 1.3549082279205322 -5.2134480476379395
2.425433397293091 1.4833670854568481 -5.242457866668701
2.4071238040924072 1.3258640766143799 -5.204504489898682
2.077301025390625 0.9359487295150757 -4.492347240447998
2.0767698287963867 0.9408724904060364 -4.4913554191589355
2.423971652984619 1.4773528575897217 -5.24041748046875
2.4391942024230957 1.5959055423736572 -5.271818161010742
2.4399333000183105 1.5847152471542358 -5.274374961853027
2.4170825481414795 1.4064221382141113 -5.227254867553711
2.002692222595215 0.5972797870635986 -4.330381393432617
2.003572702407837 0.5402049422264099 -4.331800937652588
2.405226945877075 1.3342444896697998 -5.205550193786621
2.004568338394165 0.5311022400856018 -4.3359575271606445
2.4353084564208984 1.6014600992202759 -5.268868446350098
2.4367120265960693 1.589439868927002 -5.272857189178467
2.405017137527466 1.3415377140045166 -5.208517074584961
2.617047071456909 2.0753252506256104 -5.656177043914795
2.617047071456909 2.0753252506256104 -5.656177043914795
2.439826011657715 1.7086246013641357 -5.279280185699463
2.4425714015960693 1.7717301845550537 -5.284677982330322
2.4129183292388916 1.4345245361328125 -5.226998805999756
2.6162798404693604 2.06142258644104 -5.657164096832275
2.625149726867676 2.120763063430786 -5.6750078201293945
2.0008554458618164 0.58261638879776 -4.3331122398376465
2.4190897941589355 1.4944038391113281 -5.240341663360596
2.616537570953369 2.087613582611084 -5.657921314239502
2.439697265625 1.7640585899353027 -5.281306743621826
2.0334296226501465 0.771281898021698 -4.407384872436523
2.616082191467285 2.0787296295166016 -5.658717632293701
2.4354841709136963 1.5990104675292969 -5.276726245880127
2.437373161315918 1.70531165599823 -5.281203269958496
1.998892903327942 0.5775260925292969 -4.333353042602539
2.3974220752716064 1.3661662340164185 -5.204519748687744
2.0530283451080322 0.8747979998588562 -4.458388328552246
1.9963507652282715 0.5941720604896545 -4.332702159881592
2.4067957401275635 1.4405643939971924 -5.225637912750244
2.4346306324005127 1.699171543121338 -5.282203197479248
2.396369695663452 1.3370155096054077 -5.204702377319336
2.405325412750244 1.4596718549728394 -5.223010063171387
2.6105148792266846 2.097452163696289 -5.657698631286621
1.9980627298355103 0.5758138298988342 -4.337470531463623
1.9970299005508423 0.5795462131500244 -4.335544109344482
2.392540216445923 1.320510983467102 -5.197514057159424
2.0662410259246826 0.937748372554779 -4.4904046058654785
2.398841381072998 1.3821223974227905 -5.212673187255859
2.4035637378692627 1.4348444938659668 -5.222654819488525
2.400606632232666 1.4226365089416504 -5.216744899749756
2.4325344562530518 1.6933531761169434 -5.282034397125244
1.9978978633880615 0.5603470802307129 -4.339624881744385
2.020040273666382 0.7085047960281372 -4.390436172485352
2.430959463119507 1.7069333791732788 -5.279612064361572
2.046600818634033 0.8476975560188293 -4.4496355056762695
2.046600818634033 0.8476975560188293 -4.4496355056762695
2.611926794052124 2.13480281829834 -5.666164398193359
2.4325742721557617 1.7406284809112549 -5.284383296966553
2.4325742721557617 1.7406284809112549 -5.284383296966553
2.4325742721557617 1.7406284809112549 -5.284383296966553
2.0161006450653076 0.7161675691604614 -4.384152412414551
2.469789981842041 1.6666107177734375 -5.368166923522949
2.604445219039917 2.0612006187438965 -5.653354167938232
1.9971840381622314 0.570214569568634 -4.341777324676514
1.9957834482192993 0.5505247712135315 -4.338778018951416
2.0901777744293213 1.0330828428268433 -4.548451900482178
2.0901777744293213 1.0330828428268433 -4.548451900482178
1.9949772357940674 0.5563730001449585 -4.337740421295166
2.431278705596924 1.690848469734192 -5.285700798034668
2.4076144695281982 1.5263288021087646 -5.237246990203857
1.995701789855957 0.5752876996994019 -4.340790748596191
2.4314544200897217 1.7654595375061035 -5.285261154174805
1.9956356287002563 0.5538935661315918 -4.341421604156494
2.4045519828796387 1.5208534002304077 -5.232938766479492
2.6033542156219482 2.0968017578125 -5.656462669372559
2.3960208892822266 1.4296433925628662 -5.217653274536133
2.5987730026245117 2.034590005874634 -5.649930953979492
2.5987730026245117 2.034590005874634 -5.649930953979492
1.9932500123977661 0.5370745062828064 -4.340680122375488
2.041433572769165 0.8458016514778137 -4.449855327606201
1.992211937904358 0.5511454939842224 -4.3392333984375
2.042407989501953 0.8624124526977539 -4.452120304107666
1.9919660091400146 0.5621015429496765 -4.339147090911865
2.597771644592285 2.083824634552002 -5.650212287902832
2.597771644592285 2.083824634552002 -5.650212287902832
2.387622833251953 1.459748387336731 -5.204037666320801
2.3996472358703613 1.499772071838379 -5.230241775512695
1.9911779165267944 0.5842494368553162 -4.339335918426514
2.6052584648132324 2.1190853118896484 -5.66796875
2.612969160079956 2.1549885272979736 -5.684049129486084
2.605703353881836 2.1322803497314453 -5.668876647949219
2.3982441425323486 1.5056891441345215 -5.228648662567139
2.4194204807281494 1.5997085571289062 -5.274969100952148
1.9891737699508667 0.5420366525650024 -4.336605548858643
2.3880319595336914 1.429598331451416 -5.2092437744140625
2.0821502208709717 1.0227309465408325 -4.543737411499023
2.4243762493133545 1.7007843255996704 -5.284743785858154
2.383129119873047 1.3984999656677246 -5.199308395385742
1.9929287433624268 0.5932019352912903 -4.346444606781006
2.0068411827087402 0.6710276007652283 -4.3784685134887695
2.5963146686553955 2.1021595001220703 -5.654545307159424
2.5963146686553955 2.1021595001220703 -5.654545307159424
2.421215295791626 1.6874996423721313 -5.280458927154541
2.039451837539673 0.8509418368339539 -4.452928066253662
1.9904223680496216 0.5309439897537231 -4.342429161071777
2.424126625061035 1.766916275024414 -5.286435127258301
2.382042169570923 1.3856159448623657 -5.200908184051514
2.5955162048339844 2.077526569366455 -5.656546592712402
2.0333125591278076 0.8299758434295654 -4.441741466522217
2.603461980819702 2.143245220184326 -5.673115253448486
2.03800368309021 0.8473954796791077 -4.452557563781738
2.03800368309021 0.8473954796791077 -4.452557563781738
2.047783613204956 0.9132353067398071 -4.474406719207764
2.077772378921509 1.0142498016357422 -4.540136337280273
2.035430908203125 0.8373794555664062 -4.44734525680542
2.3797147274017334 1.3447777032852173 -5.1993207931518555
2.0044524669647217 0.6645657420158386 -4.378282070159912
2.5935497283935547 2.0864319801330566 -5.654513835906982
2.390800952911377 1.4737308025360107 -5.222743511199951
2.6070427894592285 2.1786673069000244 -5.6822896003723145
1.9893920421600342 0.5771036744117737 -4.345248699188232
2.3787665367126465 1.3544319868087769 -5.198929786682129
2.378838539123535 1.3612600564956665 -5.19942045211792
2.041189193725586 0.8810030817985535 -4.4634199142456055
2.3753890991210938 1.4055227041244507 -5.194361209869385
2.355546236038208 1.2589101791381836 -5.152763366699219
2.374073028564453 1.3665790557861328 -5.19288969039917
2.0014076232910156 0.7028796672821045 -4.377835273742676
2.605868339538574 2.163341522216797 -5.686413288116455
2.590684652328491 2.0963687896728516 -5.655918121337891
2.034273862838745 0.8567093014717102 -4.451780796051025
2.3895134925842285 1.5050901174545288 -5.226964950561523
2.389833927154541 1.4844763278961182 -5.22829008102417
2.048429250717163 0.9292041063308716 -4.483460903167725
2.0001845359802246 0.683804452419281 -4.376204490661621
2.0299105644226074 0.837796688079834 -4.443840503692627
2.6022450923919678 2.1744985580444336 -5.6812744140625
2.6022450923919678 2.1744985580444336 -5.6812744140625
2.3903257846832275 1.5259788036346436 -5.230528354644775
2.0139384269714355 0.7616117596626282 -4.408699989318848
2.602191925048828 2.180985450744629 -5.681905746459961
2.602191925048828 2.180985450744629 -5.681905746459961
2.583512783050537 2.0312845706939697 -5.646088123321533
2.583512783050537 2.0312845706939697 -5.646088123321533
2.3688762187957764 1.4085510969161987 -5.187304496765137
2.6019246578216553 2.168966770172119 -5.683360576629639
2.0788445472717285 1.0413316488265991 -4.553918361663818
2.371999979019165 1.3545502424240112 -5.196004867553711
2.3694989681243896 1.3975272178649902 -5.191070556640625
2.5839383602142334 2.0897927284240723 -5.649472713470459
2.3702750205993652 1.3689113855361938 -5.194090843200684
2.3702750205993652 1.3689113855361938 -5.194090843200684
2.381249189376831 1.4713544845581055 -5.218333721160889
2.3575382232666016 1.3015525341033936 -5.169773101806641
2.3668291568756104 1.3907772302627563 -5.189445972442627
2.3668291568756104 1.3907772302627563 -5.189445972442627
2.5983214378356934 2.178032159805298 -5.682926177978516
2.0153393745422363 0.8011661171913147 -4.420731067657471
2.3676915168762207 1.4333503246307373 -5.192595958709717
2.3667051792144775 1.4051681756973267 -5.191412925720215
2.0428194999694824 0.9265680909156799 -4.482972621917725
2.0730438232421875 1.022118091583252 -4.549678325653076
2.366913318634033 1.4287422895431519 -5.193171977996826
2.010301113128662 0.7661148905754089 -4.411537170410156
2.5775129795074463 1.9819207191467285 -5.648994445800781
2.5775129795074463 1.9819207191467285 -5.648994445800781
2.364152193069458 1.3548431396484375 -5.190238952636719
2.367713212966919 1.4472700357437134 -5.197182655334473
2.0361039638519287 0.9094228744506836 -4.471292972564697
2.3639943599700928 1.369345784187317 -5.191183567047119
2.363523006439209 1.3385156393051147 -5.190976142883301
2.5818862915039062 2.1121623516082764 -5.6582350730896
2.0649213790893555 1.00276780128479 -4.538901329040527
2.3645973205566406 1.429889440536499 -5.196639060974121
2.3734793663024902 1.4727756977081299 -5.216315746307373
2.359919548034668 1.3416614532470703 -5.188119411468506
2.574171781539917 1.9785351753234863 -5.650160789489746
